VERSION 0.7
FIELDS x y z rgb
SIZE 4 4 4 4
TYPE F F F F
COUNT 1 1 1 1
WIDTH 821
HEIGHT 1
VIEWPOINT 0.0 0.0 0.0 1.0 0.0 0.0 0.0
POINTS 821
DATA ascii
48.4780044556 55.1741409302 20.6027755737 57.2834053040
59.5544853210 222.0407104492 49.0147285461 254.6829833984
24.3308486938 40.2255477905 156.2652435303 5.2224678993
162.7338562012 83.2826538086 18.8113708496 105.1203384399
42.6570091248 95.5297241211 173.7964630127 15.7975835800
3.5015637875 191.9040832520 34.7235984802 158.7440032959
254.9600372314 136.7023925781 245.5268554688 122.9395904541
178.5053863525 126.6701583862 39.6363525391 42.3863525391
201.6923065186 244.0458984375 56.2790946960 143.3770141602
123.0655136108 30.1982517242 83.6845474243 211.0381927490
193.2351989746 217.9938659668 100.0425109863 168.3618774414
58.6922264099 240.6003875732 142.6449127197 184.2790527344
252.6232757568 105.2426376343 132.1169738770 150.2129211426
77.0676193237 4.3764958382 10.6766805649 189.6631317139
39.9128990173 123.1132202148 13.4175605774 251.3610229492
221.5898895264 209.4715576172 49.4100227356 190.9785003662
250.7437744141 28.8078804016 247.8421630859 52.3484802246
58.5900802612 85.4614105225 227.2088470459 9.1988277435
84.4884338379 237.6706390381 122.8661575317 209.7435455322
123.7102279663 120.2249374390 35.1007919312 213.3865661621
195.1974029541 30.1890239716 40.1323432922 110.5005569458
147.1968078613 88.0940322876 211.2260742188 71.9525222778
247.6389007568 157.9125976562 49.7442016602 183.3717346191
166.2219848633 241.5083618164 55.8542671204 234.5711517334
161.2339477539 112.8188552856 11.5995702744 86.8393707275
124.5236816406 177.8461914062 66.9536666870 184.2310485840
15.1789236069 222.7945556641 38.9085960388 4.3159904480
167.1068115234 75.3710556030 129.9314270020 37.5361900330
162.1288757324 203.3284912109 141.5478668213 25.1956157684
240.8229980469 218.0400848389 129.4033966064 65.3686599731
111.8414611816 24.6833515167 54.2273521423 191.2819366455
23.9345550537 196.9297790527 185.3958892822 120.2531967163
21.0021495819 180.5968475342 44.4820785522 222.2794189453
93.8452987671 145.3189392090 65.5648040771 59.6375579834
229.6218261719 112.4804077148 98.4748382568 179.5232086182
20.8974437714 197.9092559814 31.1022815704 189.6253051758
84.7966918945 15.2812128067 25.7333469391 192.8323669434
183.9306945801 31.9776859283 65.3445510864 70.4511718750
145.6560211182 185.1782989502 137.2824859619 243.6155395508
149.1694030762 174.2041625977 139.3762207031 62.4692573547
240.2341003418 210.0719451904 83.0406265259 27.2817592621
198.7034606934 169.9943237305 107.9627838135 206.3592071533
184.2102203369 140.9915466309 132.4231262207 7.2476763725
125.7608413696 37.1926612854 178.2408142090 78.9682235718
133.2665557861 149.7801971436 208.6789398193 237.8313903809
118.2160644531 122.0659103394 245.2380371094 83.0547714233
9.2016391754 143.0871276855 109.4041900635 188.8415985107
236.7104492188 251.6914672852 39.1679496765 103.6610183716
212.6111907959 108.4640808105 21.5919647217 172.1925354004
93.0783920288 208.4215698242 31.5589923859 89.0560226440
55.7476959229 250.3182983398 168.0995635986 147.6719665527
173.8393554688 222.1254577637 39.2877540588 142.2238616943
6.4086723328 225.5114288330 75.3168487549 72.6988754272
155.6750183105 101.9353027344 39.6753158569 214.1159362793
244.5298156738 19.6340637207 183.5541534424 91.9953842163
164.3399963379 35.5649108887 85.3757095337 190.4277038574
22.5732879639 13.1756105423 202.6435089111 175.8437652588
111.2409515381 227.0111236572 196.9069366455 78.5618896484
70.6730499268 247.5307769775 61.8358078003 180.1531524658
230.7148895264 160.6528015137 136.4042968750 154.9902648926
106.5228958130 147.5678558350 20.5391178131 196.3713226318
96.6188278198 185.5890045166 222.1282196045 78.6497268677
226.0203857422 55.2963714600 41.6322212219 66.4979629517
23.0081138611 142.2137756348 212.0158081055 150.3588714600
74.1278152466 174.4105987549 215.6910858154 198.7964935303
17.6474380493 194.5133209229 43.1313629150 100.9106063843
80.9550781250 211.0025024414 142.8969726562 117.8552169800
4.2930727005 251.5702972412 131.9488067627 81.9898681641
249.3062744141 107.4586410522 231.4996337891 86.4770202637
57.3668403625 210.3671112061 69.0601654053 101.5526657104
30.2026214600 29.5184192657 48.9015693665 42.7186241150
102.6142730713 153.4186248779 162.2789306641 101.7044219971
141.9483642578 43.5610122681 47.6068992615 6.7963023186
195.2250671387 81.6125335693 249.9626464844 189.3070068359
88.5883331299 27.4174976349 205.4268341064 108.9537048340
221.0634307861 120.8108139038 174.9738311768 10.7049360275
103.1406021118 133.9101409912 112.1199188232 60.8678550720
151.9007110596 51.3128166199 82.2659225464 46.9006652832
112.5655670166 244.7943878174 94.9648513794 105.0998458862
206.4749145508 194.4454956055 17.8460884094 118.9366836548
88.2687149048 188.9392089844 79.0656890869 99.2116088867
95.2970352173 191.2947692871 174.1374511719 162.4895782471
252.9482421875 7.5375890732 49.9570388794 244.4087066650
69.0391998291 151.2590637207 69.5956649780 230.8819274902
227.2151794434 73.7963790894 74.6722946167 168.7184753418
105.3840255737 105.0567932129 93.5997238159 224.4316406250
143.6440734863 224.2911376953 20.6081466675 254.2989501953
78.6219635010 157.5744628906 138.7488861084 29.9893398285
176.9651947021 93.5399856567 241.2490539551 23.8224430084
108.7112426758 118.3806152344 246.3862762451 221.3953857422
154.7196502686 122.6005630493 34.7699623108 164.2434082031
94.4987640381 134.5257873535 202.8084106445 98.4785308838
129.9229278564 66.5818786621 53.6053390503 111.4083404541
104.9785232544 170.8911590576 232.5163574219 216.1997528076
87.1185913086 206.6440124512 139.1948089600 212.6989135742
235.3383789062 173.8172149658 41.6738815308 139.1411590576
241.2124786377 19.1604290009 1.7905071974 98.0208663940
216.2773590088 199.2705841064 213.3573608398 0.7837558389
87.5313262939 238.5212707520 150.9530792236 35.8366813660
6.7447443008 135.4087066650 113.6657028198 11.4506626129
27.7532272339 49.5576210022 182.1064300537 190.1016540527
252.0337677002 18.4207019806 15.2346467972 89.6417694092
199.6517791748 72.3080673218 251.9564056396 2.0999078751
33.5453834534 3.4832429886 59.3595657349 84.6413650513
111.3635787964 97.2175445557 197.1541595459 169.2975311279
96.8325805664 241.3261566162 83.5450439453 253.2089691162
42.5668869019 154.0108184814 180.7119750977 254.6680908203
132.1597442627 137.5490264893 123.0531616211 35.0279579163
135.7441864014 138.4140167236 66.3047409058 72.7730560303
132.2378082275 236.3808593750 242.2022857666 57.6022529602
31.9596652985 212.3014831543 252.5703582764 136.6808929443
9.6808242798 149.9572296143 78.1845016479 69.1188888550
15.7229824066 158.7950592041 84.5740661621 13.4712762833
20.0722389221 201.7030334473 125.1311035156 110.9455947876
7.2841253281 193.9806518555 170.2544403076 118.0963363647
55.5897026062 220.9493103027 124.6364135742 119.7496261597
203.7780151367 100.1280441284 136.9379882812 36.9489593506
40.7209434509 85.6278533936 221.5526123047 253.8974609375
225.6207733154 161.2868194580 49.0230369568 253.4796295166
96.0772781372 39.7185897827 64.5796737671 63.4624214172
95.1459426880 129.4333190918 66.3952484131 87.9914855957
193.0208129883 15.9357032776 181.2118072510 158.7315216064
93.4942855835 6.9844179153 143.0584259033 206.8126831055
224.3284454346 208.6242828369 175.6549987793 160.5216217041
39.6576004028 100.1121597290 170.9313201904 48.7094612122
67.3771743774 188.9630737305 170.7766265869 70.5665740967
216.4815368652 66.1713638306 9.9908933640 215.6036682129
23.0617752075 46.9017410278 166.6906433105 77.3325119019
116.0855941772 37.1263160706 221.6256256104 172.8581390381
26.0037155151 52.9024276733 250.3965911865 243.5984497070
148.4868774414 32.2138671875 84.2861175537 195.6847991943
169.6938018799 14.1121339798 195.0899047852 81.1858596802
70.4914245605 75.9404373169 206.1101989746 177.2458496094
162.9563598633 22.0952014923 196.6494140625 242.2851409912
40.5415115356 241.6287384033 176.1394500732 70.4989776611
206.8324432373 164.2518005371 99.6976165771 215.3901367188
203.4165344238 106.9424438477 0.7318834662 8.4106111526
224.9586639404 62.6896362305 145.4717712402 51.5514144897
5.7996788025 191.9603271484 218.2300567627 239.5206298828
199.0819702148 134.1234130859 92.1922378540 165.5894317627
72.6316909790 130.2915039062 30.6613483429 66.8377838135
84.0799026489 212.7287750244 22.6149406433 36.0867195129
55.1775856018 6.7930898666 2.3969867229 165.5164337158
202.9746551514 109.0554351807 201.4306030273 95.0151138306
58.6002006531 141.6104278564 59.2169456482 154.5248413086
177.7971496582 0.8789161444 174.0494384766 133.1986846924
177.8854827881 3.3085918427 10.0576400757 38.4604759216
19.0940399170 147.6699523926 245.3021545410 189.7907257080
200.5763244629 47.0033760071 164.5452575684 206.8564300537
165.5332794189 160.2072448730 36.8932075500 12.7165861130
225.9690704346 253.4179992676 208.8316955566 130.7311248779
78.4915084839 233.5954589844 57.7605514526 159.6833343506
193.8448333740 70.0292739868 13.8595333099 234.3981018066
83.8539886475 213.8786773682 56.1772727966 101.8265686035
177.9168090820 124.6856079102 203.3047027588 90.8177642822
42.5392532349 196.0800781250 206.8778839111 61.2954673767
244.3036651611 106.2158813477 187.0554809570 25.5706958771
113.7183761597 241.2139892578 201.2283782959 116.0352172852
21.9311084747 209.6214141846 12.9376134872 18.8585643768
118.5838241577 244.1761016846 126.3606643677 208.5519866943
27.9112834930 13.9985380173 42.5164260864 35.2106895447
5.3209581375 71.7158584595 30.2232303619 99.9059906006
27.5830898285 213.2965087891 193.3504638672 101.4649810791
140.0079040527 222.6739501953 80.2459411621 32.1837615967
189.9127502441 66.3845443726 11.8988838196 236.4306030273
34.0316696167 224.5636444092 94.0406188965 82.3209457397
124.3207778931 61.4436264038 8.5289840698 151.6092376709
160.0747680664 187.6994781494 186.9388275146 148.4003448486
25.4523048401 173.1505889893 74.4185791016 139.1283874512
91.4255218506 84.8007583618 56.4725608826 43.1115646362
12.7283926010 183.6286621094 45.5608825684 56.1610603333
65.8666610718 70.1245346069 157.7927703857 204.2272033691
22.0933246613 219.9954681396 124.6836090088 212.8819885254
120.7517623901 195.8089599609 171.8764953613 195.9520111084
117.0775985718 132.1541748047 94.6441802979 192.2399597168
175.5451202393 249.2713165283 157.8412628174 218.1965026855
86.2551345825 13.6708698273 98.2224655151 113.0274200439
67.5947799683 156.2525024414 217.6066741943 208.9015197754
191.7845458984 151.6791992188 239.5306396484 222.5509643555
4.5842881203 113.5227661133 109.8270568848 77.1956634521
150.0672912598 167.0521697998 159.3804779053 71.2352371216
171.4964752197 152.8550872803 69.0440444946 13.2952222824
42.5501098633 100.4782333374 95.1343536377 101.8240280151
63.6194267273 201.1299743652 51.3978691101 122.4157638550
208.6848602295 247.1640319824 147.1305847168 180.2397460938
63.3229789734 124.6090469360 36.3033943176 91.7023925781
61.3953819275 175.8691711426 232.5270690918 177.5096740723
76.7574920654 194.7640838623 233.5274505615 242.8127441406
81.6108703613 21.3486385345 227.4900207520 161.5396575928
33.6681289673 67.4251937866 203.5314788818 231.4285125732
119.5318374634 250.8001861572 247.5097198486 83.8418197632
198.0633392334 189.6773071289 65.2130355835 228.7070617676
248.1372680664 103.8653182983 152.4898529053 76.4911346436
166.0543518066 118.8635864258 213.3408813477 109.4679946899
205.5664672852 190.8272399902 176.0334930420 127.9840164185
66.9248733521 51.4372520447 122.1417007446 112.9503936768
138.9070129395 132.4544982910 102.5431671143 212.2632141113
172.8610992432 169.4268341064 180.8620147705 54.3697891235
129.9639282227 141.3241882324 95.7323074341 58.5722427368
201.6848449707 12.9984445572 90.7238235474 173.7123413086
80.2385787964 214.1684570312 160.8751831055 221.0499725342
100.9082794189 199.5956726074 227.6022186279 182.7607727051
131.8996429443 126.6891403198 109.7879791260 203.3264465332
47.8387222290 192.3647613525 193.8882446289 61.7153778076
61.1997795105 9.5733213425 254.8488159180 189.7268524170
22.4472904205 55.3465957642 180.8699188232 145.6395111084
69.7756881714 1.9802056551 45.5952110291 175.3600006104
92.5726089478 0.7156524062 19.3979206085 252.4333496094
242.3249206543 38.3703346252 214.6895904541 245.8831481934
254.2611083984 104.0590667725 76.5687332153 7.5487756729
55.7515411377 75.8191909790 56.3299484253 59.8521118164
116.9608917236 143.1445770264 71.6299285889 184.9629364014
223.7012634277 20.5456829071 167.6818389893 198.8363494873
60.7579002380 16.8776664734 201.8696746826 37.3848991394
131.8467712402 219.7385253906 99.9882049561 36.1913414001
222.6194915771 206.8118743896 95.3244094849 127.1446456909
152.0921173096 181.8031921387 197.5598144531 171.8201293945
193.8796386719 89.4415435791 80.3074951172 114.4819030762
77.9297714233 80.6276321411 82.5655212402 135.7868499756
214.8159332275 224.0762023926 171.1333618164 29.6636276245
248.2580718994 32.5326461792 12.9339866638 145.6244964600
168.5626831055 213.5350341797 79.7989425659 178.9499511719
70.9361572266 69.6936111450 81.1635437012 253.7755279541
188.3380126953 50.1555061340 218.4873809814 197.1405334473
164.9132995605 164.5047607422 127.0550308228 67.0299835205
167.4280242920 199.4457550049 211.8191375732 254.0284881592
183.9903869629 81.7577972412 19.8030948639 124.3520507812
146.0620880127 80.1496963501 206.4034271240 115.7713470459
240.4288787842 24.6355400085 53.3801918030 65.7780685425
91.7222366333 36.9106369019 45.5180854797 175.8201446533
78.0943679810 220.6722106934 43.1829872131 28.7152671814
230.9160766602 40.7799949646 197.1661682129 46.0567665100
80.3454971313 72.3905105591 109.5380249023 28.7728309631
140.4644622803 130.9534912109 109.1892929077 57.3793716431
11.7506809235 76.4433670044 105.0508499146 57.1467514038
246.5214691162 127.1790771484 80.9375991821 93.0439224243
6.6089000702 162.6923522949 166.7021331787 184.9713134766
62.0477027893 47.4801406860 8.8770523071 104.8032226562
189.4495544434 3.7824385166 50.0441436768 215.8787994385
230.9300689697 131.3260192871 140.9353332520 218.9374084473
110.3239212036 44.5806198120 232.9213409424 55.8240280151
87.3375854492 154.1975860596 143.9526062012 86.0613174438
203.4533538818 101.5737075806 241.6935882568 97.0717086792
198.3617706299 200.5468139648 161.5848388672 173.7722930908
34.4940490723 205.1266174316 104.2878799438 42.3700637817
175.7610321045 103.0730209351 52.9573287964 167.2612152100
199.8084259033 16.8999080658 254.0623779297 54.7541198730
147.4112243652 0.6456700563 26.4157962799 207.9237823486
116.7698516846 104.4632339478 217.6118621826 32.7019462585
34.2422904968 227.0551910400 145.3776855469 209.2493133545
204.6050109863 203.7676544189 131.4747924805 86.4963073730
8.8728952408 225.6308135986 239.7689666748 119.0188140869
134.7270507812 80.8691787720 140.1190490723 53.8089027405
214.9699249268 105.0052566528 79.1158294678 24.4651985168
227.4555206299 54.1537361145 129.4225463867 209.0538177490
215.9342498779 91.4826736450 96.9913101196 176.6896972656
127.3446884155 0.9648627043 249.8821716309 98.6873626709
221.2218780518 88.2541275024 160.8204956055 128.0397949219
195.5606689453 159.1017608643 93.5138473511 253.4279479980
71.9745941162 175.7579040527 117.2253036499 55.2271881104
197.8644409180 164.6612091064 16.8940105438 221.0264282227
210.1417083740 233.0304412842 186.1525878906 230.0539398193
138.4617309570 135.8167572021 66.1601791382 150.5802764893
22.0369987488 153.8956146240 187.8176727295 230.6785278320
226.4515533447 149.5239868164 166.5467834473 194.6209869385
188.3144989014 169.3422698975 236.0621795654 1.7949036360
109.4071273804 38.8341178894 186.5586547852 239.1470642090
208.9317169189 62.8005218506 84.7177200317 165.7627105713
109.3902359009 175.1778717041 195.1496887207 108.3321456909
223.1411132812 121.9342498779 233.9396057129 47.0356826782
253.1692352295 248.5130157471 6.1779994965 190.1179809570
7.4851083755 81.2701721191 63.7882041931 239.1070251465
194.1866302490 31.3322181702 207.2278137207 187.1714019775
169.0462493896 84.2602539062 48.1850204468 130.8036499023
246.2118377686 236.5631866455 33.1165237427 11.3745765686
94.0032272339 111.0585403442 183.5305480957 8.2946720123
52.7519149780 195.5546112061 160.0950775146 60.3830337524
140.1945648193 164.3282318115 85.1138839722 140.6458740234
82.5120620728 38.0490722656 58.7376098633 102.1574478149
215.9567871094 81.9609375000 64.1598510742 62.3159866333
18.9488010406 252.1393127441 166.7923889160 221.5875396729
15.4799327850 226.9920349121 233.3230133057 115.0902252197
244.3292846680 123.8474884033 64.4611206055 189.5045776367
13.0597562790 110.2227859497 193.0426635742 115.3733062744
141.0673370361 20.6066169739 132.1177368164 233.2619171143
89.8302001953 1.7559129000 153.8261108398 52.6735763550
246.3877563477 35.3618202209 167.0026702881 165.3801574707
212.3951873779 146.7222747803 241.3381347656 248.0396118164
210.5923309326 197.5939025879 87.8008575439 203.1193237305
55.8221168518 164.7892761230 190.1927947998 22.0387802124
28.1095943451 83.0170898438 167.5839233398 129.3419799805
252.4428710938 98.8538894653 146.3523101807 244.6182098389
113.8570175171 20.3402595520 42.0901603699 185.1680297852
130.3755950928 146.5062103271 84.1475982666 128.3338623047
234.3762664795 172.4932098389 18.6171035767 43.9471969604
86.9483337402 205.9485626221 180.0069427490 51.3684196472
15.5989475250 211.6044158936 234.6049652100 201.5133209229
177.3835601807 46.2671012878 122.7566146851 76.8515625000
237.8557739258 184.3995513916 42.3761787415 180.9884948730
194.2815399170 97.7972488403 95.9851531982 46.6924667358
81.0869522095 109.0495300293 117.0617218018 43.4570388794
54.7249717712 97.7026977539 150.2770080566 63.8062477112
132.9776458740 72.2841491699 196.5644683838 4.7456955910
237.4634857178 223.4066925049 162.2498474121 169.5193328857
189.9369354248 170.9387359619 196.4342193604 181.0666961670
112.5101776123 58.4545440674 238.7011260986 119.5575561523
237.9013061523 203.7317962646 96.4723205566 47.5840034485
212.3894805908 129.5034484863 214.4163970947 20.0400714874
146.6773986816 79.9318389893 57.5033035278 48.0846023560
182.1809082031 188.5966644287 220.5717773438 16.3672275543
178.0804443359 6.7909169197 174.7091217041 111.0456161499
53.3732566833 249.5180358887 210.7359161377 237.3125457764
48.6494293213 76.7871017456 164.3828582764 63.6810531616
205.3926086426 251.5807037354 253.7105712891 199.6728057861
224.1644592285 75.9532012939 89.0899887085 111.0042037964
61.9424629211 60.8468780518 117.8879470825 237.4505462646
156.8062896729 216.2048797607 210.6952056885 180.7989959717
110.8794860840 238.4603576660 8.5418910980 195.7218780518
254.6016693115 135.6293487549 230.3696899414 247.5877380371
118.6805725098 143.0473175049 151.1560821533 79.0552749634
118.9709320068 88.9348144531 238.3140106201 127.5191268921
92.3325195312 183.9515533447 58.1122131348 105.6588973999
235.7945709229 242.8323364258 112.3602905273 31.9535121918
93.8814620972 158.7096557617 76.2130432129 89.9934234619
226.5008697510 115.3003997803 67.5396804810 28.8818950653
10.9327526093 227.3003082275 215.9841461182 192.9978790283
22.3102092743 50.2428817749 181.1552124023 164.4256744385
129.1307525635 216.2999114990 186.1143646240 160.0025787354
80.5297851562 63.0516090393 52.6835823059 96.2725143433
61.2206840515 79.8966751099 116.9942016602 219.5524597168
20.4033355713 0.5768446922 8.4025154114 162.5639190674
210.1730194092 37.2132759094 129.2245330811 193.2981872559
13.0141668320 2.2620625496 156.6890258789 47.4475517273
103.7642974854 22.2490139008 144.0872955322 134.9787139893
251.3041229248 6.5293183327 148.4560241699 180.8537292480
103.7081222534 100.2947769165 203.5533447266 15.6260662079
237.2337036133 214.8933410645 172.0028991699 171.3616638184
198.0410766602 110.5015182495 5.6034536362 173.0507812500
6.3155817986 19.4500274658 34.5576896667 103.9689331055
164.7424316406 135.5928192139 151.9243774414 189.5804595947
93.0860137939 161.5292053223 72.0744857788 68.1843261719
222.4221191406 215.3401489258 225.1980743408 22.4573173523
11.3802957535 214.9087371826 176.1436767578 224.7426147461
17.7380123138 190.2548980713 69.8024673462 29.7908668518
107.0362701416 30.3818893433 126.7161712646 29.4266948700
230.7183685303 19.7871551514 79.0351943970 15.8834190369
247.9265899658 0.8126212358 245.3497619629 116.0790481567
247.5048828125 208.2213745117 229.4005126953 251.0059661865
42.1744422913 70.5125045776 60.1812973022 55.0089416504
133.1893920898 231.5057220459 223.6775360107 179.1929626465
186.2344665527 194.4211120605 99.3525238037 143.3149108887
162.6584930420 246.2012329102 240.9140777588 228.1581268311
77.7370986938 148.7214965820 14.8496408463 157.8398895264
21.7283611298 10.7890625000 176.4768371582 25.9100666046
91.7171630859 138.8373107910 240.6054687500 81.5289230347
245.2047119141 161.1976928711 191.0923461914 34.6758155823
52.4198112488 88.1082305908 217.9119110107 146.8994750977
12.4181709290 117.7858734131 212.7014312744 187.6629333496
56.7251510620 170.1481628418 223.1849365234 242.4641113281
151.5001831055 136.0030517578 128.1024780273 27.2555694580
19.1030559540 173.8359832764 27.4684219360 190.6472015381
4.9524784088 59.1283874512 3.7892973423 11.9550695419
241.5004730225 145.6101531982 153.9721374512 129.0416717529
194.3351593018 27.0796298981 179.4724731445 115.4311447144
67.9495468140 226.8958129883 43.5639610291 154.4313507080
194.8968658447 149.5549468994 147.0584869385 22.9034633636
140.2786407471 251.1151733398 8.7556037903 77.2504348755
139.3346557617 185.4485168457 24.8134174347 29.3513889313
227.4119110107 195.7113494873 21.5905895233 92.2548294067
189.0781860352 206.7596893311 123.1072387695 39.6288070679
50.5837936401 158.7877807617 10.9651689529 149.6776275635
211.3837127686 69.5002593994 140.8619537354 71.5434341431
167.3117675781 177.2540893555 186.7272644043 35.7323036194
64.8619003296 250.8304595947 119.8345108032 62.9744186401
54.6362686157 31.8494873047 210.6179199219 188.3660430908
76.7689514160 179.6327362061 55.2297782898 73.7413101196
101.0784378052 121.1509552002 72.9573059082 54.0096168518
230.8026123047 40.0489501953 22.6412696838 176.0909118652
8.7726192474 129.7965393066 16.3976325989 109.8503952026
118.2613754272 225.2599792480 244.3704833984 111.0855865479
16.5121860504 110.5125503540 55.8785896301 175.1100463867
135.8162384033 94.2297515869 53.5051155090 215.1395568848
244.4985961914 155.5833587646 110.0884552002 156.3441772461
118.7324981689 95.0646820068 213.4665374756 241.0034790039
235.8461151123 243.6205291748 207.0437164307 184.3317108154
227.2706146240 132.5800628662 118.2615509033 96.9091796875
42.9816932678 97.7939147949 220.0742034912 15.7515878677
37.6140899658 178.5110015869 80.0788345337 29.4331550598
184.0649261475 152.0113525391 212.5943908691 225.0177154541
126.3219299316 93.5018692017 236.8144531250 226.8070068359
240.1459503174 175.5078887939 154.4410858154 59.6008262634
237.4462280273 212.9415130615 133.4247894287 95.6332244873
203.3994750977 77.6179962158 50.9729461670 204.6556549072
212.0592956543 234.3383941650 115.3097229004 112.2442321777
120.3098754883 12.7319393158 82.0986251831 70.0109100342
172.2768859863 151.7988281250 123.9099655151 73.8383331299
65.8066558838 186.6297607422 115.3735427856 62.0018234253
52.4538421631 49.2059745789 9.6473836899 250.4115753174
14.9389638901 52.6787948608 250.8964538574 100.5780487061
51.5692863464 39.0005645752 190.4655303955 143.7750854492
189.4371337891 69.1461181641 13.2901239395 44.5789337158
23.4523429871 249.6659545898 226.1553344727 30.0172595978
174.6027526855 138.6192779541 188.7712554932 95.6948089600
51.0377464294 169.8229217529 45.5182647705 215.4360504150
46.2166862488 46.8842391968 209.6319274902 242.0102081299
197.2229919434 221.6923217773 43.4837417603 117.9760894775
132.0851745605 62.4644546509 211.5939025879 36.8712615967
119.1519775391 84.4539947510 238.3062591553 29.3564300537
104.1733779907 162.9364013672 186.5480346680 31.4078216553
57.6500473022 47.3493423462 15.8129014969 130.0429077148
116.0279617310 79.2906417847 77.1984710693 201.7935791016
86.4064636230 241.7398834229 129.5148773193 209.6486053467
67.9498443604 170.7264404297 150.2581329346 84.7192230225
231.9048309326 29.9899196625 99.3502273560 150.4646453857
60.4399108887 159.0658721924 25.8550224304 68.1358947754
1.6822845936 148.1209411621 106.8367691040 234.5766448975
117.2116317749 13.1207780838 56.2646903992 80.2381820679
173.6938323975 49.7486839294 135.8359832764 248.6867828369
108.0642089844 1.1472144127 9.2619085312 184.1864929199
182.0742187500 87.6538772583 120.8211746216 194.5120544434
167.8910369873 241.8998260498 211.1796112061 3.2807641029
7.9525113106 213.7791290283 120.5547256470 211.7714233398
92.5462341309 6.0413889885 0.7829744816 102.0189208984
207.4081268311 86.9833068848 169.0749206543 117.4528121948
164.5185089111 166.1895294189 243.7724151611 134.5652160645
61.7151145935 240.7616882324 26.1603546143 224.6844177246
15.4969625473 89.8659439087 182.7547760010 19.8198528290
192.7400054932 213.3899230957 231.1273803711 189.5401763916
204.5107269287 237.5688323975 101.6056823730 71.3563079834
168.7460784912 152.3070831299 84.6664428711 103.8389511108
165.0939788818 84.5704650879 68.7546844482 26.5254421234
61.5377197266 171.8054199219 238.9064025879 155.7712707520
229.4715728760 9.3203315735 93.4603881836 53.2907829285
115.0962524414 115.2235565186 69.6733779907 117.1273422241
161.9885101318 67.4853820801 158.0457458496 53.2419509888
232.0653991699 88.3323669434 79.0580291748 151.7154541016
176.0557098389 84.5990447998 215.5665740967 138.5011138916
146.7952575684 27.5586624146 24.7618236542 31.9930267334
19.4226837158 42.0925979614 44.1483764648 171.8663635254
164.7016754150 104.7148208618 107.8601913452 33.5931549072
35.9598693848 10.0365743637 166.6181335449 16.4305934906
5.5553884506 99.0393524170 173.5556945801 147.3717193604
84.5615158081 110.1897735596 31.5291862488 157.1934509277
138.7889556885 34.1605567932 99.8291854858 78.1611022949
108.1286544800 38.6054496765 186.4517822266 234.4141693115
85.0414657593 54.4102020264 58.2619972229 162.0359191895
61.2262725830 50.5205192566 192.2005157471 17.9840297699
96.7514114380 52.1111564636 226.6113128662 172.4250488281
84.3180923462 85.3396301270 214.6469421387 188.9509582520
120.1761932373 149.9648742676 26.4611816406 45.4683074951
43.1504516602 182.0808868408 91.9192123413 225.4759521484
92.0706329346 4.6981530190 172.1328735352 106.5781555176
115.4031219482 6.2286362648 231.2286682129 233.8114471436
45.8748817444 131.6516571045 21.0870094299 27.5559635162
202.2288513184 15.2667808533 95.1173171997 169.9551849365
79.3292846680 100.7748184204 211.0737915039 68.7712783813
248.1799621582 3.3087673187 225.6296386719 0.6385324001
98.9824752808 228.2719726562 81.3884735107 16.8187179565
147.6315155029 8.4115610123 193.2364196777 60.4903221130
44.3207359314 219.2215423584 201.4554748535 3.5216705799
71.2876815796 4.1530766487 19.2329597473 239.5919952393
39.8296737671 69.4993286133 244.3182373047 144.9888153076
52.8808364868 164.6498718262 152.6256103516 172.9740142822
140.1780242920 137.5564727783 126.3282089233 121.4083328247
106.0381546021 104.8872604370 95.1524124146 169.8858795166
49.6090354919 4.8209848404 166.0699310303 10.9437685013
62.8909416199 119.6978302002 226.9570770264 141.3864135742
226.1092834473 30.2864665985 228.3045043945 31.6145133972
124.6599197388 195.0926666260 221.2379455566 155.6968688965
10.5793037415 27.1250190735 225.0534820557 157.5263824463
224.7619628906 66.7010345459 175.5167083740 133.4974822998
95.2515792847 199.0693054199 113.2874450684 28.4370155334
54.1224403381 2.5894093513 169.7465209961 219.2746429443
135.6797637939 89.8483428955 64.1500854492 202.5157775879
201.0131072998 12.7300930023 249.7440948486 21.5323162079
202.9533386230 0.3120440543 114.0202560425 3.3398716450
15.1117134094 183.6005096436 50.8273315430 108.8524169922
61.7539405823 199.7313537598 28.5689563751 225.5294647217
233.7937011719 201.6552276611 89.2270507812 188.8847961426
91.0761795044 216.7218780518 27.3435955048 17.2280693054
49.9880752563 3.0493860245 253.1003875732 209.3134002686
246.9643707275 168.9897460938 107.4951248169 97.1536788940
10.6610002518 180.0977783203 11.9324398041 66.9420013428
139.6832580566 114.4284133911 102.8389434814 112.5209960938
43.4001731873 50.7332916260 175.0569763184 186.9373779297
8.2588081360 171.3703918457 159.8831481934 144.8062896729
138.2257690430 199.5084991455 200.2268524170 218.2059936523
215.3134002686 209.3149414062 230.6932830811 44.7371330261
233.4483032227 124.9986343384 151.3054656982 68.4935302734
142.8041534424 101.2477035522 16.5471057892 195.9552154541
107.3046722412 97.6012039185 224.6281433105 21.9637451172
174.8198089600 239.8726959229 8.9867296219 132.4338531494
185.1741027832 111.3629379272 195.2383117676 30.4204006195
64.9495544434 216.7805328369 189.4821014404 80.9971618652
138.7488098145 205.3210601807 22.0477657318 160.4103851318
202.7098999023 133.6425323486 252.6000061035 71.7716598511
55.4543991089 164.1845550537 35.8492431641 57.8019752502
253.6285095215 196.2177734375 50.5268898010 174.2379913330
206.4118041992 111.4474258423 80.5779190063 72.7072677612
9.3391065598 31.4195957184 127.0504837036 158.0525665283
142.4084777832 222.3404998779 78.1537780762 151.9835968018
111.6191024780 45.4922447205 41.7911453247 219.4917907715
170.7664337158 185.5830993652 250.5370025635 25.3355464935
42.5027389526 99.1397552490 42.0882263184 45.2037239075
41.7420806885 125.9762344360 37.4338874817 172.8977050781
62.0085525513 8.1600990295 146.6597900391 29.3710079193
13.3112783432 122.9370574951 156.7773590088 252.3017272949
179.6156158447 227.0162963867 69.3802185059 235.1123352051
26.4059791565 205.6293334961 241.5864562988 38.2874298096
237.7756652832 236.4347991943 61.9910850525 102.9464340210
235.6766815186 186.4260711670 69.8158340454 91.3861007690
185.1816101074 193.9842224121 121.4151153564 180.4642181396
234.4152679443 223.6711425781 8.1880817413 197.6944885254
30.4939765930 17.4816074371 84.8881759644 38.3731842041
5.9622135162 16.3370075226 62.7810859680 46.7175827026
175.8374481201 180.9813079834 17.3620357513 133.2588043213
214.6392822266 151.2888183594 158.5322875977 92.1941757202
168.8414001465 61.6129226685 27.4750270844 138.1474456787
183.5233154297 122.4894866943 187.4539337158 105.8969345093
100.6334381104 117.3789520264 29.4777221680 156.1319885254
235.2095794678 151.2589569092 57.8052330017 15.8077392578
184.1970825195 48.6545600891 43.0972747803 177.5784149170
55.5892677307 140.3455505371 175.5734100342 218.7920227051
133.2735443115 83.1706314087 177.2046508789 95.1100692749
226.8097534180 12.2222528458 133.3952178955 109.5088806152
86.4029693604 117.2831802368 161.2633666992 10.1281318665
164.8905487061 224.1257476807 168.8739471436 177.8091888428
28.9124794006 218.4186706543 52.8500633240 31.3677215576
19.7112007141 46.9230461121 1.0523246527 32.8594894409
250.8525390625 172.4078369141 93.1245727539 232.3752746582
239.8245391846 150.3177795410 3.7968764305 193.1822204590
207.9542846680 51.6159896851 223.8652496338 159.2551574707
131.5060424805 230.4246368408 71.9362716675 31.7272987366
115.3932647705 29.2027988434 27.8396492004 183.5149841309
146.3971099854 143.2424926758 77.6126098633 35.6792449951
34.4700241089 100.4662017822 111.0374603271 251.5183258057
217.5769042969 209.6699829102 19.0409755707 51.6874427795
91.0079727173 202.6012573242 177.7237396240 159.4706115723
18.5077362061 92.6082992554 10.8320789337 164.9214019775
181.3190460205 72.1858215332 6.9064793587 40.2536010742
103.7621231079 76.7549285889 124.7565765381 137.6170806885
240.5863189697 222.9205474854 202.9520874023 156.1084594727
73.6540756226 7.6284079552 147.5445404053 131.2789611816
193.7421722412 148.2700195312 193.2376251221 6.8851804733
85.5688018799 85.1573715210 60.9622993469 69.8063354492
240.7367553711 210.3871612549 11.2432613373 54.1364555359
94.5145721436 5.9418516159 215.3584442139 78.8600540161
233.1031646729 152.1153564453 161.6878356934 73.8589401245
162.0645751953 134.5105285645 149.3538665771 25.7091617584
177.3648834229 61.6847724915 226.1727142334 28.3587970734
5.9458189011 171.5664978027 108.7429046631 55.9753723145
125.8000259399 221.7979583740 19.3406372070 215.1844940186
4.9191417694 175.6508941650 103.7843551636 75.7235946655
82.3602752686 170.5813293457 48.1175956726 238.7543640137
201.7813568115 236.9417724609 237.0428771973 91.8106765747
69.3554611206 81.1359939575 22.7900733948 190.9575653076
233.5138397217 6.6954355240 237.2913360596 152.6283721924
178.7412109375 163.1932678223 81.3566970825 238.4896392822
122.9379196167 172.0119476318 68.9679718018 107.4444274902
21.4468250275 130.0453948975 183.4645538330 214.7895507812
191.9443511963 144.0152435303 192.5421295166 217.7886962891
73.8316574097 111.3939819336 242.9131927490 148.8744354248
193.9842224121 203.9831237793 205.9513702393 78.1981430054
122.5489654541 128.3736114502 55.6314659119 48.5865707397
117.7371063232 32.3108711243 96.7441329956 48.8393669128
209.8031616211 66.7465744019 149.6625061035 219.1999511719
22.6878280640 252.1131896973 131.5580291748 49.5965194702
110.7825241089 189.8178100586 235.5540008545 65.5701370239
216.3835754395 74.3824691772 202.6759643555 241.3920288086
227.7753295898 40.8441925049 136.6227416992 165.2063446045
19.2182598114 95.2775573730 228.7742919922 62.4087677002
91.5885238647 125.5075378418 10.6880025864 85.8573379517
135.5180969238 62.2638282776 98.6133041382 171.8894805908
1.2316595316 15.4447879791 245.5720062256 231.3070831299
155.2108459473 220.9823913574 150.9767303467 195.0558776855
231.3005218506 152.8288574219 67.7982177734 167.3747253418
97.9979934692 66.5468292236 237.0347747803 2.4455540180
239.5107727051 47.8267784119 198.7305908203 26.1592559814
110.7524108887 200.1081390381 112.6459579468 14.1390123367
67.1922836304 144.0578308105 105.7920379639 226.6909637451
78.6319808960 77.2106628418 222.1133270264 138.4219970703
50.9613571167 184.0929107666 33.8636474609 175.7520294189
60.5314445496 78.9980392456 214.7408447266 145.6105804443
210.8310699463 166.7357635498 114.0244064331 56.0371017456
183.6362762451 27.6763343811 116.8304061890 5.3358445168
153.8435058594 146.2232971191 79.1304626465 209.6561431885
116.8256912231 103.8316955566 32.6033363342 56.5629234314
97.0630187988 199.6225280762 81.0065536499 12.0084552765
168.5233154297 244.6248626709 106.6938705444 123.2867050171
52.1822967529 127.0880966187 70.5567550659 216.5173492432
248.7560272217 47.1450347900 177.6210021973 56.6378517151
161.3306579590 124.4085083008 194.1919403076 222.3353271484
213.2457733154 38.7488670349 18.9950332642 37.3480262756
182.3668670654 8.1133642197 107.8607635498 69.6430969238
205.5531768799 71.5353851318 7.1360406876 168.7904357910
112.3833465576 151.2401580811 28.2239913940 218.7877044678
96.2661437988 250.4259338379 236.3456726074 3.7146546841
190.8619689941 45.5914344788 252.9424133301 92.0890502930
148.7122650146 98.6175384521 80.6204528809 45.1505889893
242.4212799072 185.3495483398 170.5522003174 109.2087554932
65.6478271484 70.5176391602 168.3568725586 228.6395874023
147.9258880615 71.3238067627 57.1040267944 159.1358184814
219.9653625488 136.0141601562 154.4163665771 161.7996215820
242.1902618408 122.8295440674 163.5035858154 181.7701110840
156.8589477539 11.4814138412 106.7760238647 111.4046707153
42.7975616455 84.7540359497 129.5039520264 86.4751892090
54.6903076172 76.4426422119 120.3280181885 133.7124176025
182.5837860107 9.2895421982 94.8008804321 182.4679260254
204.3520965576 52.8947906494 187.2112579346 72.6832885742
104.7734375000 129.1780548096 197.1741638184 190.3432617188
36.1875801086 254.3625488281 25.5297088623 102.4731979370
201.1452026367 10.6748476028 240.4273223877 235.6145629883
53.3683319092 91.6809844971 92.0915985107 50.4861831665
42.7735023499 19.3165206909 156.3654937744 68.4732589722
193.8595123291 64.4017791748 196.1645660400 67.7537231445
128.8232269287 130.9719543457 155.4969635010 56.2607841492
252.7109069824 119.3857879639 147.7782287598 140.6368408203
185.6921691895 124.0613937378 70.6674346924 170.7671813965
12.3718614578 28.6983776093 191.5266723633 236.6167755127
23.4081668854 161.8872222900 196.1653747559 203.1503143311
85.0365600586 46.7256469727 157.3090362549 234.7013702393
1.8394813538 14.7602424622 165.2365570068 67.1881103516
144.1432647705 210.8128967285 47.2080612183 249.3078918457
91.7412796021 162.5081176758 125.8678054810 137.1201477051
97.3542938232 177.0715637207 98.2338790894 139.0779724121
219.2717132568 23.5163764954 0.8248349428 66.4479217529
118.4012298584 224.1407775879 208.0158233643 57.7575035095
147.0400695801 195.4277954102 14.9981641769 23.3592090607
136.6779022217 82.7668838501 105.2618179321 107.5150070190
251.7672882080 102.8620147705 204.1518402100 77.9473190308
36.2124519348 177.7606964111 38.6473159790 40.1933288574
199.5408630371 18.8581333160 224.8218536377 243.2035675049
103.8318710327 91.8809204102 159.1949615479 182.6555480957
150.2041931152 213.1641693115 88.7261352539 183.8797454834
43.5255508423 174.3830566406 11.8017063141 231.0669403076
207.4007568359 159.9814758301 183.0616455078 64.1291732788
73.0901412964 126.2989654541 131.4647369385 33.1164779663
66.1487197876 180.5168762207 182.8524475098 111.5194625854
85.5195999146 143.1165313721 249.9501647949 125.1741638184
252.2200469971 1.7511521578 139.3564605713 190.0220642090
139.8355407715 84.2019271851 138.4027862549 158.9539947510
216.1090545654 119.8266601562 76.9762344360 148.2986297607
43.1511611938 128.7692718506 188.2815093994 163.7421264648
8.4308423996 182.7135467529 206.6728668213 13.4338865280
177.2115478516 1.8589305878 61.8900146484 133.5783081055
4.1456809044 148.4370880127 189.3981628418 151.3794403076
190.1669006348 239.6097869873 57.5890693665 139.8685607910
191.4544830322 162.9585876465 66.6729202271 104.8163681030
200.3158111572 143.0903625488 23.6888847351 127.3869552612
114.9313583374 221.9892883301 184.7962799072 117.2558822632
104.7561721802 197.8085174561 90.7965621948 84.7050476074
224.8666076660 22.4995803833 254.8701629639 97.7417297363
98.6452026367 73.1076583862 68.3578796387 20.6600418091
125.1953735352 182.5601959229 77.0196533203 229.2531585693
154.6251831055 134.4280395508 121.7535705566 194.4956665039
65.0047073364 204.1212463379 201.9268951416 218.6799468994
2.6388170719 131.1252593994 118.3641433716 44.9759941101
136.3473663330 84.3440628052 9.0279645920 129.5834960938
33.0124015808 239.7555999756 211.0155792236 92.4035949707
76.6606674194 86.7966461182 145.6547851562 56.6628570557
221.8579254150 220.5410156250 97.7437133789 172.0771789551
100.0630722046 105.1744995117 63.7217063904 4.8840785027
43.0726051331 246.1753234863 8.5761032104 164.4499969482
4.3543548584 181.6383361816 84.3014831543 127.6287002563
165.6402282715 233.3315582275 221.9264221191 135.9386749268
151.6153564453 130.3412628174 100.8314208984 30.2178821564
165.3467407227 17.5504951477 25.8416957855 46.6560401917
153.8362426758 212.4551544189 142.3507080078 64.8049316406
11.2435073853 110.7209701538 34.6771278381 99.5844726562
1.1050245762 72.4282150269 88.9175796509 198.8921508789
219.6265869141 32.8665771484 195.2739868164 179.5489349365
5.5716528893 164.5123596191 165.6055450439 236.9705352783
135.5296630859 209.3142700195 210.5650634766 218.8218536377
50.7278251648 250.0791778564 158.4593505859 84.2271575928
96.7574157715 3.0236334801 85.2051391602 122.4752349854
250.8612060547 241.2205657959 28.1499557495 104.1784667969
238.1820373535 119.5913085938 201.0252990723 222.5822753906
5.8938364983 24.1111984253 108.8703842163 206.4368438721
35.6256980896 130.5786895752 31.1300945282 123.4053649902
123.7232208252 181.8204956055 163.1984405518 155.5571289062
207.1660919189 49.6171607971 187.7030792236 3.3133308887
220.8129425049 158.4718017578 48.2409591675 109.3035278320
44.1446151733 252.3846435547 225.9136505127 67.3275527954
64.7505111694 138.9260559082 203.0775909424 189.1373291016
175.2701873779 115.2913589478 186.9935913086 28.4215888977
8.0782928467 35.4611930847 243.0964202881 30.9731922150
134.6518249512 78.4192352295 17.2842941284 39.1802177429
140.5313720703 249.2733306885 120.7387313843 179.3012847900
245.3577575684 48.4011726379 42.4020576477 25.3376445770
161.6489105225 126.4969940186 194.1619262695 246.2997436523
0.7824653387 218.3357849121 68.3241882324 13.4513645172
243.0241851807 134.4558258057 65.5337371826 101.9330596924
117.6437225342 101.2615509033 87.1401367188 65.4432296753
173.4641113281 178.4837493896 253.3767547607 141.6369171143
71.7130508423 24.9580688477 113.8930282593 7.2770628929
52.5221366882 239.6281433105 143.4642944336 161.1069641113
118.7155151367 168.0319519043 190.1371612549 88.4879913330
194.0401763916 186.0021514893 250.8687591553 155.7455291748
156.0664672852 111.3264083862 105.3152389526 97.2943649292
101.7411880493 64.8162231445 55.9816818237 181.2934417725
156.8604125977 17.3057575226 12.9147777557 164.2223968506
211.7609100342 111.2224121094 157.2143096924 204.9109344482
249.4668426514 107.6277770996 93.9408874512 35.0213317871
250.9648895264 26.1582679749 81.5012435913 3.7673854828
148.6508789062 181.8014678955 34.1402931213 62.6480636597
37.6635322571 120.2983856201 134.8144836426 136.4470825195
173.0823364258 139.5711517334 21.2205429077 193.0505981445
170.7121124268 220.5326385498 188.2139282227 93.7646408081
152.1160888672 76.8304748535 168.6666412354 71.6364822388
187.0161132812 48.4330291748 99.2923202515 35.3169898987
225.7302856445 157.6368255615 243.5829010010 68.9144897461
206.8736724854 145.2170715332 238.9411926270 217.9320220947
128.4416503906 69.8122329712 136.4992370605 152.0543365479
233.9862213135 45.7208442688 176.6920623779 19.1916599274
125.6515045166 170.3215484619 251.7435302734 221.5715332031
122.1919021606 219.7242736816 145.6664123535 68.4835205078
56.7174453735 119.9602050781 112.6246337891 226.3762054443
239.0298004150 251.9057617188 210.8668212891 245.9023742676
128.4032592773 2.2460491657 214.5730438232 1.1834354401
130.2924499512 55.8257369995 253.3285369873 45.2987976074
185.3612060547 169.7544708252 144.7455444336 16.7450923920
208.3554687500 169.6131896973 165.2474822998 87.0917663574
173.6497955322 134.9454498291 129.2219848633 132.4879608154
127.9351119995 36.2178421021 212.9423065186 63.3711395264
79.8269882202 6.3438763618 244.1159973145 155.9736480713
217.2331695557 194.8556671143 82.6763153076 206.1137237549
102.7521820068 242.6848907471 58.0591201782 178.7154693604
68.7808532715 237.2993774414 144.1220550537 95.6950836182
227.0802154541 97.7151107788 78.4011306763 182.5159606934
143.2780151367 108.4915542603 233.9522705078 70.7318344116
31.1482315063 163.7515869141 149.3284759521 57.7053489685
64.2749328613 158.4507751465 127.6986236572 141.2038421631
90.7686767578 69.3551101685 195.5353240967 104.1057891846
238.9309997559 95.3557815552 1.6437568665 116.9155731201
1.7929656506 20.1955814362 152.4791564941 164.4011840820
129.3626708984 225.1524505615 149.9288940430 165.5210876465
206.6714324951 200.6390228271 137.3927612305 59.7725410461
170.5977325439 97.3509445190 177.3547363281 209.8407745361
99.7429962158 236.3899383545 188.3669738770 107.3924179077
153.9243011475 150.3519287109 227.6323852539 99.4400558472
198.2554779053 234.9819335938 9.2377920151 207.0092620850
46.1187896729 183.6506500244 177.5004577637 12.4814510345
199.2900238037 55.5312805176 237.9590911865 209.1494903564
221.4674530029 237.8699340820 207.8744201660 168.8768310547
48.0692481995 220.8956146240 210.1686706543 5.8989605904
21.5747718811 76.4363098145 109.6225128174 147.7462921143
246.4729614258 228.1937866211 99.2058105469 137.7714843750
60.7786979675 108.5026473999 243.6408233643 91.6477661133
192.6198120117 196.8566131592 236.1965026855 178.4289245605
78.0498504639 61.5757446289 54.1542739868 43.8676681519
54.8212051392 42.6647796631 152.7975921631 72.2845764160
147.4187011719 110.6218643188 77.5123138428 132.1162872314
175.7436828613 67.0842361450 80.5196838379 168.2722930908
30.1576213837 217.5955810547 222.2442626953 151.5179595947
48.7644309998 1.7500662804 170.9771881104 57.2290458679
102.9833755493 171.4824371338 32.9850921631 155.8623352051
0.4624367356 125.8097305298 70.2031860352 186.4974060059
146.2469024658 54.3993988037 38.4463691711 60.9189643860
33.0638275146 147.5864410400 137.5084381104 178.6591949463
49.0895957947 120.8921127319 116.9873123169 208.8108825684
216.9047241211 0.2821821272 228.4248809814 241.4695434570
65.9079284668 203.9280548096 72.6352310181 95.7109756470
161.4453582764 86.4123458862 189.6986999512 33.7779045105
246.4651336670 131.5286712646 149.7640075684 196.2243194580
241.3479003906 103.5967941284 94.3842010498 22.8916816711
62.1875267029 221.1007232666 172.3712768555 243.1149749756
185.3835296631 115.7270126343 79.1529388428 28.4090576172
7.5473384857 149.5089721680 182.4925384521 7.3795204163
230.1592864990 231.0809783936 173.1373748779 92.3819885254
100.5685577393 76.8842697144 240.1768493652 160.9384155273
162.9757080078 137.6821594238 79.9479904175 85.7331161499
176.0929260254 25.9956092834 24.3124961853 174.5240173340
239.4239501953 121.7757339478 172.8035278320 69.5997161865
254.8717498779 221.5146789551 192.5812835693 157.1122741699
124.6510391235 18.6762943268 221.8422088623 196.2416534424
238.3627014160 191.2425994873 124.3996047974 138.6606903076
170.1837158203 151.6095123291 218.1795959473 4.6654367447
67.1932601929 190.6089324951 244.5682678223 229.7326812744
170.7352294922 20.8996105194 96.8125000000 30.9769687653
131.5360565186 12.5740356445 245.5895385742 213.4909515381
180.9516601562 53.2323875427 50.2398109436 74.1593170166
83.0039138794 218.2988433838 13.9448556900 183.4553527832
176.5904388428 112.3518524170 203.3155822754 232.9253997803
132.5023345947 174.7336883545 210.6058502197 203.3099365234
72.2885665894 93.6500473022 240.9409942627 172.4294586182
210.8008575439 83.9687500000 228.9612731934 241.2886962891
47.9782943726 70.4315032959 239.3935852051 28.4169883728
51.8244705200 235.1044158936 135.7991638184 176.0230712891
85.6685333252 174.7441101074 217.0187683105 231.6746673584
163.6093139648 9.6741218567 22.0666046143 199.8798370361
114.2487182617 117.7987518311 116.3241958618 51.8198585510
253.4291534424 93.0481719971 169.4572143555 163.4729766846
102.2891311646 170.4272766113 57.7953987122 169.0715026855
94.9860610962 249.3847961426 208.8649902344 233.7347412109
113.7819213867 123.8975830078 23.0251407623 213.1410675049
50.8183670044 76.4274368286 12.6022882462 26.6856842041
154.5563964844 70.6297149658 172.9736175537 126.4921112061
180.0953674316 36.4621315002 138.3966674805 2.3740813732
128.0404205322 243.3282775879 130.4979248047 20.4358367920
56.9903831482 11.4636077881 58.0668563843 200.1331481934
209.6765441895 211.4778137207 107.6121673584 109.3064346313
120.5430679321 57.8670578003 159.0642700195 18.0229225159
228.0622253418 233.0261383057 4.2155766487 140.2302093506
243.4712982178 100.3441390991 74.4413146973 47.1223983765
133.0489044189 230.5349884033 241.1991271973 25.0309867859
200.6904144287 207.2971954346 189.8061981201 48.6254768372
68.6277008057 128.0628814697 82.8860015869 194.4805450439
80.8149566650 113.2348251343 2.9316756725 225.6284027100
153.4415130615 60.6046257019 210.6869354248 57.3272628784
242.3081817627 206.0697631836 30.5828609467 221.5658264160
189.3418121338 33.4314117432 51.8017463684 195.6906433105
135.7810058594 245.3933563232 208.5973052979 229.6057128906
23.8652305603 232.8173065186 0.8104239702 9.9890460968
52.2498397827 49.2725257874 128.5528106689 206.2589569092
209.5956726074 120.4209671021 166.8050537109 218.4047698975
156.6183624268 150.7461547852 171.6685638428 63.3277282715
220.3835296631 120.5917587280 84.9166870117 42.4530296326
40.0104789734 67.6501770020 64.8966445923 45.5727882385
84.9957656860 223.4907226562 247.7361450195 166.8111419678
253.7969665527 215.3681640625 206.2943725586 172.3391876221
105.6115264893 169.1474761963 228.8233642578 155.3604278564
